//X Y Z Planarity_(0.155122) Surface_variation_(0.155122) Verticality_(0.155122)
-5.26900005 -15.73190022 -0.99980003 0.551112 0.111082 0.213699
-5.44110012 -16.50989914 23.25699997 0.261376 0.085802 0.058816
-7.12629986 -18.41090012 18.74909973 0.098630 0.052633 0.654326
-3.97930002 -16.45509911 19.11770058 0.142906 0.127865 0.990549
-6.58960009 -16.91110039 19.03980064 0.242684 0.139521 0.620191
-5.27899981 -18.29630089 14.96549988 0.022604 0.275238 0.349273
-7.28959990 -15.33300018 21.32659912 0.087007 0.253858 0.593253
-5.41279984 -18.17530060 14.70100021 0.629974 0.117634 0.942752
-6.73820019 -18.21120071 15.06219959 0.163613 0.202251 0.233002
-7.92889977 -17.81200027 16.41659927 0.098498 0.162423 0.019041
-7.96509981 -17.84329987 16.25519943 0.389779 0.115691 0.369544
-6.20279980 -17.60239983 14.91590023 0.493137 0.183303 0.676968
-6.85850000 -17.77879906 15.04109955 0.158312 0.207277 0.064912
-5.56799984 -14.59580040 18.48439980 0.146054 0.169871 0.044341
-7.38119984 -16.52890015 16.84329987 0.404641 0.056567 0.877811
-7.32159996 -18.53359985 13.15869999 0.590599 0.096604 0.967246
-7.41340017 -18.51379967 12.91800022 0.247702 0.191146 0.929225
-7.95009995 -18.40119934 13.39649963 0.299544 0.116305 0.706503
-6.06960011 -17.52160072 11.89169979 0.218443 0.258442 0.708462
-6.77260017 -15.70730019 14.69060040 0.314033 0.139952 0.448939
-6.87090015 -15.61429977 14.50710011 0.079632 0.105578 0.882483
-8.33450031 -17.68939972 12.90299988 0.057255 0.197022 0.749003
-6.34490013 -17.73749924 11.19709969 0.237798 0.201768 0.816693
-8.87100029 -15.20160007 16.07920074 0.230114 0.128538 0.684359
-6.84800005 -17.02490044 11.93700027 0.152432 0.077959 0.646191
-9.02470016 -14.95189953 15.86760044 0.108434 0.237897 0.148208
-7.23470020 -14.85239983 14.12479973 0.149146 0.177000 0.399071
-8.59259987 -15.98130035 13.74810028 0.120692 0.211258 0.316310
-9.29249954 -17.37610054 12.39019966 0.112171 0.174020 0.280343
-8.34609985 -16.75139999 10.20540047 0.244359 0.152676 0.119005
-5.17729998 -15.42420006 9.07289982 0.347790 0.200309 0.860659
-7.97900009 -16.99010086 9.45240021 0.205004 0.107888 0.972406
-7.04479980 -16.59440041 7.81739998 0.539285 0.123074 0.924329
-7.27440023 -16.50230026 7.43860006 0.735877 0.077834 0.944915
-7.00040007 -16.56240082 4.92259979 0.769108 0.058960 0.948928
-7.27199984 -16.47990036 4.51219988 0.431118 0.054700 0.974764
-7.22429991 -16.52879906 3.70939994 0.809143 0.048925 0.996442
-7.00820017 -16.59329987 1.58640003 0.532973 0.051865 0.954914
-7.22480011 -16.49539948 1.26610005 0.651732 0.045909 0.983155
-4.72709990 -18.23990059 15.61240005 0.345601 0.159443 0.360019
-5.16480017 -18.31450081 14.82600021 0.211354 0.217375 0.136005
-5.86409998 -17.51049995 11.85159969 0.167019 0.260351 0.223382
-6.34700012 -17.11409950 12.60060024 0.372481 0.166378 0.010862
-4.98789978 -16.38100052 11.49880028 0.330137 0.211742 0.709943
-7.26719999 -16.63780022 14.21570015 0.201853 0.154520 0.904470
-6.48260021 -17.71980095 10.85659981 0.086461 0.195054 0.476563
-7.79610014 -15.58759975 14.32719994 nan nan nan
-5.61219978 -16.35000038 9.75689983 0.349023 0.185279 0.546285
-6.99940014 -14.32689953 13.73519993 0.191034 0.186761 0.529009
-7.04860020 -14.30620003 13.68130016 0.513760 0.143579 0.245600
-4.99079990 -15.35429955 9.00940037 0.174758 0.144361 0.692312
-7.27229977 -16.58110046 9.53649998 0.291581 0.121284 0.915020
-8.33710003 -16.62859917 10.14669991 0.320654 0.149579 0.176045
-7.14629984 -16.64159966 7.84310007 0.631183 0.075354 0.992109
-7.17229986 -16.63489914 6.99800014 0.406762 0.054851 0.993916
-7.47200012 -15.99470043 6.94129992 0.065253 0.026782 0.654567
-7.08979988 -16.61240005 4.19890022 0.569191 0.056129 0.977300
-7.06599998 -16.58040047 2.30620003 0.592054 0.084283 0.980002
-4.68650007 -16.37190056 11.32859993 0.307062 0.136734 0.943669
-5.16590023 -16.37249947 11.86690044 0.509312 0.153985 0.823234
-6.28830004 -17.57970047 11.86540031 0.158546 0.232559 0.632757
-6.31839991 -17.97139931 10.61340046 0.237028 0.200839 0.705842
-6.20160007 -16.34129906 12.99629974 0.423632 0.151665 0.418849
-6.37919998 -15.81149960 13.29220009 0.470098 0.058309 0.135674
-6.63590002 -16.89839935 9.49499989 0.148430 0.037588 0.649056
-7.14550018 -16.67110062 7.79190016 0.529531 0.065974 0.993497
-8.26019955 -16.79570007 9.98890018 0.373206 0.132607 0.748591
-7.17280006 -16.59700012 5.24849987 0.674128 0.056975 0.974735
-7.03070021 -16.58650017 3.63779998 0.727715 0.089442 0.937934
-7.25169992 -16.49650002 4.09380007 0.643870 0.074399 0.988619
-5.75220013 -16.33110046 9.96370029 0.214124 0.094139 0.501479
-7.06080008 -16.57609940 10.21420002 0.472795 0.108118 0.930675
-7.16520023 -16.64760017 10.91880035 0.376280 0.110044 0.998341
-7.00139999 -16.56349945 5.14750004 0.677680 0.088522 0.936938
-7.09079981 -16.63909912 5.64510012 0.580178 0.038344 0.981196
-7.28490019 -16.55159950 8.05879974 0.754161 0.069963 0.964944
-7.15959978 -16.62249947 5.09810019 0.718327 0.063162 0.975645
-7.28879976 -16.47850037 3.58879995 0.681232 0.051697 0.962637
-7.12360001 -16.58950043 2.36389995 0.586247 0.068874 0.926416
-7.15010023 -16.60330009 3.85840011 0.612957 0.062218 0.998825
-7.08139992 -16.60960007 4.36439991 0.715913 0.068028 0.922671
-7.00530005 -16.57099915 4.90509987 0.802865 0.045745 0.907195
-7.11980009 -16.64340019 6.60949993 0.421095 0.071745 0.982533
-7.03219986 -16.58849907 7.24879980 0.649202 0.076857 0.964192
-6.97049999 -16.50729942 9.35700035 0.129863 0.251805 0.272628
-7.34740019 -16.70079994 10.02499962 0.321288 0.044002 0.677832
-7.67210007 -17.91720009 9.01280022 0.184675 0.047313 0.029736
-7.87919998 -17.12129974 9.76169968 0.288174 0.195107 0.385074
-8.58710003 -16.44050026 9.74590015 0.457181 0.087803 0.267588
-4.59009981 -15.83670044 -0.01260000 0.352659 0.194166 0.692539
-7.12570000 -16.59519958 3.70729995 0.705064 0.072279 0.982994
-7.06839991 -16.60740089 4.89309978 0.646910 0.049705 0.999996
-7.10909986 -16.60939980 4.91779995 0.709684 0.047708 0.968485
-7.06489992 -16.62470055 5.52799988 0.633340 0.076535 0.942138
-7.18170023 -16.58329964 5.62790012 0.579114 0.103802 0.811580
-7.15350008 -16.61289978 6.26830006 0.707546 0.101202 0.909774
-7.15899992 -16.59880066 7.74069977 0.571464 0.111857 0.906609
-7.07149982 -16.63380051 8.44330025 0.748590 0.066768 0.991073
-6.48029995 -16.37299919 9.99750042 0.033431 0.005159 0.262621
-7.10680008 -16.64419937 9.30340004 0.426586 0.070701 0.980304
-7.13339996 -16.62520027 10.24919987 0.616726 0.109101 0.985824
-8.27480030 -16.72179985 10.13140011 0.395538 0.221787 0.197797
-8.49699974 -16.38730049 10.61610031 0.021223 0.079044 0.805171
-8.37030029 -15.62909985 13.37170029 0.302949 0.145441 0.337399
-9.59599972 -17.28510094 12.71049976 0.119392 0.205928 0.600906
-4.52869987 -15.97679996 -1.18820000 0.316772 0.018835 0.431248
-4.70520020 -15.67860031 -0.11810000 0.141618 0.086381 0.005868
-7.21700001 -16.53779984 0.93970001 0.695109 0.066193 0.999886
-7.05119991 -16.58079910 1.43889999 0.366713 0.137446 0.910050
-7.19960022 -16.54570007 1.61860001 0.793897 0.050258 0.997210
-7.20970011 -16.53669930 2.34770012 0.756509 0.052183 0.975023
-7.09369993 -16.62059975 2.90969992 0.736686 0.046081 0.924579
-6.96920013 -16.56959915 4.32779980 0.719466 0.079594 0.952941
-7.00659990 -16.61230087 4.34689999 0.595304 0.069034 0.942134
-7.13549995 -16.63470078 7.12979984 0.796844 0.049795 0.989410
-7.05079985 -16.64669991 9.13430023 0.452424 0.108427 0.997770
-7.90180016 -16.57349968 10.54520035 0.305343 0.117589 0.915847
-7.97709990 -16.99300003 10.23449993 0.172860 0.173442 0.869622
-8.04529953 -16.98270035 10.35620022 0.149920 0.220955 0.424240
-9.52849960 -17.29660034 12.57260036 0.063599 0.208323 0.886230
-9.56779957 -17.29750061 12.64229965 0.194698 0.226577 0.940486
-9.60589981 -17.37540054 12.63010025 0.188448 0.161794 0.592399
-5.08710003 -15.68869972 -0.87519997 0.379057 0.138543 0.174362
-5.63159990 -15.86159992 -1.02779996 0.290671 0.210516 0.177650
-4.78100014 -15.88899994 -0.50680000 0.187794 0.067876 0.970601
-6.80910015 -17.28179932 -1.33050001 0.223735 0.107853 0.002752
-4.82499981 -15.75990009 -0.37799999 0.136189 0.167655 0.129914
-4.84189987 -15.53829956 -0.24429999 0.204773 0.033552 0.289235
-7.17119980 -16.56889915 2.07990003 0.617105 0.071530 0.959632
-7.03480005 -16.60919952 4.92679977 0.637412 0.048882 0.981831
-7.12620020 -16.63209915 5.09919977 0.750691 0.075208 0.968859
-6.98740005 -16.60040092 6.09140015 0.591368 0.073411 0.987966
-7.10020018 -16.64399910 6.31160021 0.736489 0.059662 0.930305
-10.12209988 -17.29380035 12.54469967 0.283204 0.210224 0.717095
-10.21370029 -17.39940071 12.76710033 0.319883 0.095184 0.014165
-9.72700024 -17.03310013 13.80620003 0.369320 0.228924 0.913338
-9.86240005 -16.92519951 14.42430019 0.115716 0.115629 0.961754
-9.97550011 -17.12089920 14.67710018 0.227552 0.151594 0.456057
-8.15730000 -17.00349998 9.76519966 0.357096 0.180391 0.506363
-7.42570019 -16.41790009 10.94239998 0.101902 0.069558 0.835492
-7.34829998 -16.36730003 11.47299957 0.087690 0.232557 0.095486
-7.04180002 -14.27919960 13.70020008 0.410897 0.159353 0.281071
-10.33640003 -17.21879959 12.15279961 0.386657 0.183432 0.350668
-7.88450003 -17.24539948 11.87409973 0.227768 0.130143 0.530662
-8.40660000 -15.80230045 13.66639996 0.031077 0.228135 0.908866
-10.31359959 -17.27680016 12.53909969 0.376951 0.153169 0.172477
-7.11289978 -16.55209923 12.92029953 0.202286 0.207757 0.734838
-9.04669952 -17.19479942 12.67969990 0.277456 0.196723 0.386908
-7.64580011 -16.40089989 13.87110043 0.158657 0.119921 0.057832
-6.82359982 -15.87819958 14.72830009 0.276604 0.196218 0.814630
-8.93509960 -16.82189941 14.27429962 0.589986 0.101137 0.569019
-7.21320009 -18.69269943 11.86769962 0.292765 0.108355 0.341195
-9.59169960 -16.77050018 14.80469990 0.139044 0.219870 0.083498
-8.19499969 -16.55450058 14.87240028 0.471315 0.163461 0.137999
-10.17609978 -17.02009964 16.40029907 0.281515 0.196603 0.756756
-8.70909977 -16.86199951 16.36860085 0.186329 0.154058 0.591226
-9.46660042 -14.78629971 19.99500084 nan nan nan
-7.79440022 -15.63290024 18.49889946 0.291953 0.181752 0.485894
-6.50509977 -17.26810074 15.97270012 0.344746 0.174771 0.874495
-10.17140007 -16.06579971 19.42429924 nan nan nan
-7.65399981 -16.55349922 18.71699905 0.224583 0.245157 0.653868
-9.03870010 -18.22669983 18.57589912 0.470186 0.097006 0.067654
-7.45359993 -17.75230026 19.00079918 0.359571 0.123393 0.638072
-6.20419979 -15.48579979 22.68759918 0.018905 0.005789 0.990257
-6.35389996 -17.03310013 20.92250061 0.571025 0.000945 0.038129
-8.11890030 -18.21319962 19.58419991 0.147165 0.193716 0.234096
-7.35690022 -18.82180023 18.65909958 0.363075 0.167311 0.900971
-5.20489979 -16.73480034 22.16220093 0.134464 0.018484 0.269839
-6.78060007 -16.59119987 24.12249947 nan nan nan
-7.21250010 -16.59910011 8.16940022 0.536504 0.075544 0.963231
-8.22239971 -16.69820023 10.14120007 0.065549 0.233090 0.202128
-7.17689991 -16.61919975 9.61270046 0.383267 0.094027 0.956208
-7.43109989 -16.47699928 10.59969997 0.089486 0.032299 0.539129
-8.25459957 -16.88920021 11.60350037 0.174463 0.023530 0.304072
-9.13449955 -17.03680038 12.90139961 0.608776 0.151665 0.190871
-6.58360004 -17.91780090 10.23250008 0.395492 0.163842 0.647596
-7.09170008 -16.54030037 12.97990036 0.599119 0.121177 0.891743
-6.24520016 -17.73180008 11.02589989 0.032315 0.264215 0.957452
-7.59289980 -16.60619926 13.52369976 0.172398 0.109414 0.121435
-6.16219997 -17.82220078 11.14780045 0.475831 0.167673 0.627093
-8.15139961 -17.73399925 12.94670010 0.044504 0.229953 0.791425
-6.41970015 -17.21739960 12.40200043 0.210892 0.189531 0.589813
-5.93949986 -17.50650024 11.76420021 0.419922 0.197293 0.915833
-7.87839985 -15.91329956 15.45530033 0.325093 0.145575 0.786710
-7.18769979 -16.60479927 14.53260040 0.029487 0.221781 0.022988
-7.14809990 -16.59679985 14.63679981 0.398215 0.153899 0.566593
-8.25419998 -17.69869995 14.74260044 0.414935 0.006549 0.536600
-7.19799995 -18.61280060 12.81540012 0.407535 0.135669 0.669301
-10.06729984 -16.20420074 19.37899971 0.415661 0.022063 0.004181
-7.75419998 -15.61480045 18.55290031 0.218185 0.215773 0.487600
-7.14760017 -16.54980087 16.77280045 0.249014 0.047892 0.875509
-6.53329992 -16.83839989 15.92990017 0.122234 0.003590 0.840047
-6.35010004 -16.36289978 16.77529907 0.399356 0.098155 0.255846
-7.70400000 -17.69319916 16.33169937 0.135947 0.218509 0.182283
-5.90180016 -17.92690086 14.66969967 0.060363 0.261597 0.482801
-5.83190012 -17.82410049 14.90009975 0.558048 0.107468 0.539312
-6.22200012 -17.28039932 16.29879951 0.123647 0.098614 0.753159
-6.51140022 -15.79010010 19.17840004 0.134052 0.225547 0.835686
-7.26650000 -16.51860046 18.91620064 0.461743 0.143531 0.979622
-8.64239979 -17.71019936 18.72480011 0.403010 0.096908 0.055337
-5.11600018 -18.27050018 14.45310020 0.212629 0.192659 0.938863
-5.37760019 -17.88899994 15.84599972 0.350858 0.143281 0.408066
-5.98890018 -15.56669998 20.74620056 0.246577 0.188877 0.830581
-5.93940020 -15.59860039 20.84140015 0.388793 0.178510 0.940023
-7.62190008 -17.54619980 19.34000015 0.428298 0.147142 0.521935
-5.24669981 -16.49839973 19.27400017 0.370924 0.129507 0.416440
-7.22970009 -16.71479988 21.66580009 0.411718 0.030939 0.008979
-5.44990015 -16.48310089 21.20789909 0.064541 0.303722 0.788002
-7.12799978 -18.93280029 19.02650070 0.359426 0.220237 0.271864
-4.72650003 -17.47579956 19.62890053 0.158067 0.215988 0.454535
-7.00209999 -16.54100037 7.23909998 0.736670 0.064523 0.969997
-7.13829994 -16.62490082 7.88450003 0.560520 0.076789 0.994645
-7.00860023 -16.54759979 8.06709957 0.695807 0.066710 0.866593
-7.25500011 -16.57410049 8.65600014 0.580022 0.092767 0.945206
-8.34189987 -16.71890068 10.15559959 0.270942 0.148299 0.241463
-10.17389965 -17.06380081 13.39939976 0.147908 0.180285 0.850927
-9.20839977 -15.77280045 13.48250008 0.211309 0.112246 0.472105
-10.03890038 -17.11630058 13.55010033 0.380654 0.203076 0.587626
-9.06630039 -15.74330044 13.72000027 0.109554 0.257350 0.131465
-8.54539967 -15.53050041 13.29109955 0.422592 0.129519 0.677849
-6.81459999 -16.85910034 9.90820026 0.011038 0.085980 0.931909
-9.57059956 -16.71570015 14.82339954 0.063072 0.272628 0.177725
-5.53009987 -16.40279961 9.71300030 0.379695 0.200852 0.519245
-6.68699980 -17.89130020 10.30379963 0.550704 0.141350 0.962406
-7.96770000 -17.47109985 13.47119999 0.369372 0.189084 0.410727
-6.71080017 -15.54539967 14.38169956 0.337528 0.186521 0.945881
-6.27960014 -17.70919991 10.90649986 0.459305 0.162890 0.969861
-8.20779991 -18.14629936 13.71059990 0.218067 0.052761 0.695776
-7.54059982 -16.24539948 15.37769985 0.597528 0.025368 0.980698
-6.81300020 -17.42250061 12.61240005 0.155559 0.249775 0.890308
-9.63910007 -16.27039909 19.07410049 0.284314 0.080775 0.815177
-5.34609985 -16.43440056 11.81849957 0.442391 0.164286 0.533936
-7.95489979 -17.42550087 14.93439960 0.180485 0.119064 0.445877
-4.75890017 -16.41609955 11.44180012 0.640523 0.104603 0.882694
-7.45090008 -18.51959991 13.09480000 0.296802 0.179237 0.297914
-7.06759977 -18.67239952 12.27840042 0.465376 0.173877 0.695105
-8.59490013 -16.53269958 18.46929932 nan nan nan
-7.43130016 -16.55620003 16.73760033 0.678220 0.000094 0.723657
-7.41230011 -16.88820076 16.37809944 0.554555 0.135872 0.020254
-7.30399990 -16.49250031 17.00329971 0.124442 0.094389 0.658346
-7.25019979 -16.54409981 17.02370071 0.342112 0.069084 0.853496
-7.48600006 -15.70250034 19.48069954 0.156648 0.257211 0.015177
-6.64900017 -17.17790031 15.64920044 0.563324 0.173297 0.817607
-7.32600021 -16.54330063 18.65080070 0.209934 0.141246 0.986712
-7.73180008 -17.11529922 19.11980057 nan nan nan
-6.36119986 -15.81050014 19.21229935 0.214810 0.207106 0.847044
-7.05569983 -17.29229927 18.11560059 nan nan nan
-5.39219999 -18.20940018 14.93579960 0.235468 0.144754 0.619273
-5.94259977 -16.48579979 20.93610001 0.422552 0.091918 0.399809
-5.87610006 -16.52569962 20.99069977 0.409307 0.138146 0.551889
-5.79659986 -16.51320076 21.13380051 0.114957 0.058288 0.432962
-5.71400023 -16.49139977 21.29400063 0.123632 0.064277 0.850132
-5.64260006 -16.51779938 21.37380028 0.159232 0.051675 0.945645
-5.54930019 -16.44639969 21.61479950 0.193687 0.005435 0.371272
-5.48140001 -16.47599983 21.68470001 0.305748 0.212631 0.560061
-5.04820013 -17.41780090 19.28240013 0.332594 0.140755 0.517537
-5.16050005 -16.47809982 22.19370079 nan nan nan
-4.70489979 -17.52799988 19.66160011 0.145447 0.253535 0.790552
-10.27700043 -17.30970001 12.36600018 0.364211 0.178227 0.998874
-7.08389997 -16.62000084 5.62930012 0.573712 0.079596 0.932689
-10.07129955 -17.26280022 12.58059978 0.247093 0.221337 0.704118
-7.09999990 -16.60070038 7.55039978 0.478093 0.090817 0.910651
-7.59049988 -15.92099953 9.93910027 0.069946 0.118656 0.064382
-7.16599989 -16.62520027 8.19519997 0.794075 0.080207 0.990547
-10.29020023 -16.93350029 16.61100006 0.477396 0.155807 0.263407
-7.23570013 -16.63290024 8.87950039 0.414275 0.034026 0.903843
-10.04209995 -16.98539925 16.76049995 0.208984 0.194016 0.097637
-7.29309988 -16.56949997 9.65960026 0.395874 0.219417 0.630856
-7.60370016 -16.23360062 11.42809963 0.411313 0.094857 0.011861
-7.14410019 -16.64189911 9.69989967 0.633752 0.115809 0.916082
-7.80000019 -17.43490028 11.14830017 0.060560 0.163315 0.454922
-7.15250015 -16.62969971 10.52229977 0.375155 0.073226 0.759671
-8.74849987 -14.34659958 18.44109917 0.565410 0.076207 0.926624
-8.39379978 -16.67580032 14.57880020 0.405344 0.095633 0.502550
-7.19280005 -16.59919930 11.39410019 0.553924 0.140466 0.900269
-8.92609978 -16.88330078 16.45800018 0.612059 0.154193 0.912447
-8.20359993 -16.56940079 14.85280037 0.276865 0.173527 0.283242
-8.73659992 -16.79619980 16.74290085 0.461895 0.130536 0.206644
-7.97170019 -15.94309998 15.75949955 0.024162 0.253030 0.028444
-7.93830013 -17.90679932 13.52250004 0.260224 0.225113 0.858386
-7.14870024 -16.56200027 13.40789986 0.165932 0.213521 0.280339
-8.62080002 -16.54759979 18.72500038 0.393185 0.119130 0.590096
-7.23309994 -16.62249947 14.37749958 0.148642 0.115456 0.675940
-6.71619987 -16.89469910 12.39099979 0.226298 0.209553 0.413329
-8.42179966 -16.83519936 18.48940086 0.157192 0.209316 0.485774
-6.92479992 -17.46559906 12.68029976 0.084263 0.181946 0.970656
-6.38780022 -17.75880051 10.94970036 0.174791 0.177962 0.954621
-7.82089996 -17.71349907 16.31590080 0.665297 0.096714 0.044086
-5.65150023 -15.88020039 13.01749992 0.061811 0.121118 0.640330
-7.70340014 -16.75679970 19.29039955 nan nan nan
-7.02330017 -16.88179970 16.73010063 0.192902 0.182618 0.338962
-5.77810001 -17.60890007 11.47649956 0.358425 0.170876 0.758828
-7.35750008 -16.93099976 19.36739922 0.443743 0.156948 0.211617
-6.87060022 -16.28820038 19.10460091 0.078932 0.196162 0.915483
-6.85920000 -18.26849937 15.14109993 0.365780 0.053570 0.467480
-5.99359989 -17.46089935 15.60299969 0.040206 0.286039 0.956185
-5.80819988 -17.84289932 14.16740036 nan nan nan
-6.16230011 -15.50399971 22.63109970 0.071266 0.010584 0.822140
-6.13199997 -17.17399979 18.58340073 nan nan nan
-6.16529989 -18.84359932 15.02239990 0.180842 0.214384 0.176357
-6.11149979 -18.88689995 15.01529980 0.203842 0.206717 0.277284
-5.52519989 -16.51099968 21.78350067 0.330504 0.125628 0.347229
-5.29169989 -17.48399925 18.94400024 0.360288 0.083551 0.986831
-5.01450014 -16.55629921 22.22730064 0.065156 0.042231 0.829294
-4.44920015 -16.58810043 19.32229996 0.398741 0.018690 0.079852
-4.64270020 -17.46680069 19.57489967 0.451180 0.185508 0.262251
-9.69859982 -17.21610069 12.51420021 0.333163 0.217874 0.787552
-9.63850021 -17.26070023 12.48270035 0.464225 0.170056 0.571899
-9.44789982 -17.47649956 12.30239964 0.311208 0.162296 0.818387
-9.39060020 -17.49970055 12.29349995 0.175084 0.162831 0.129703
-9.16590023 -17.20030022 12.68290043 0.115939 0.230203 0.043215
-7.91830015 -16.04249954 7.74069977 0.026151 0.040441 0.068053
-8.79590034 -15.36190033 15.92669964 0.129952 0.221133 0.452298
-8.09700012 -17.07169914 9.75170040 0.343659 0.168045 0.348151
-7.24219990 -16.55060005 4.15950012 0.850202 0.052804 0.923998
-8.54479980 -16.76350021 14.36890030 0.472908 0.139137 0.875811
-8.07120037 -17.64089966 11.63230038 0.228569 0.246105 0.058397
-7.21330023 -16.60210037 6.33790016 0.702854 0.067635 0.927940
-8.00329971 -16.43409920 14.92280006 0.149859 0.125372 0.000862
-7.24580002 -16.60869980 8.19279957 0.341656 0.047939 0.962125
-7.12869978 -16.62890053 8.88529968 0.564889 0.082665 0.989358
-7.64400005 -16.21150017 15.29730034 0.161380 0.150214 0.942380
-7.39130020 -16.24300003 13.24209976 0.170025 0.078555 0.041912
-7.21269989 -16.61170006 11.15209961 0.425357 0.069965 0.941387
-7.59390020 -17.65859985 13.62660027 0.107537 0.208548 0.604636
-7.24170017 -16.61009979 12.91489983 0.312896 0.111348 0.966231
-6.69589996 -14.26340008 13.34710026 0.126648 0.239882 0.675933
-6.71570015 -16.85409927 9.52919960 0.109417 0.074726 0.492017
-6.98120022 -17.74810028 12.74619961 0.039289 0.003386 0.198328
-6.62760019 -17.95109940 10.13379955 0.295301 0.220738 0.816599
-6.26160002 -17.81539917 10.35070038 0.282219 0.195371 0.279784
-5.61159992 -16.60330009 11.58679962 0.552701 0.164601 0.513603
-5.21509981 -16.32999992 11.93309975 0.654523 0.120644 0.695890
-9.24209976 -15.76710033 13.57250023 0.378282 0.186726 0.647550
-8.04580021 -17.32029915 10.98270035 0.194024 0.180266 0.554344
-7.60900021 -15.99059963 13.13809967 0.117442 0.069551 0.538512
-7.47389984 -15.27840042 13.85319996 0.114854 0.137930 0.700910
-7.06920004 -16.61020088 7.82660007 0.634489 0.117161 0.941918
-6.49980021 -16.99020004 11.99489975 nan nan nan
-6.73390007 -17.93040085 10.25640011 0.216807 0.180377 0.672986
-7.27069998 -16.57950020 5.46150017 0.498740 0.046790 0.980733
-6.52370024 -17.95459938 10.21230030 0.457354 0.137311 0.587890
-6.98010015 -16.50839996 6.03140020 0.650262 0.077530 0.973125
-7.15030003 -16.62420082 4.34350014 0.823652 0.054931 0.989307
-7.24039984 -16.52519989 2.86339998 0.806172 0.045674 0.987452
-7.20510006 -16.58239937 2.84200001 0.708522 0.047342 0.967322
-5.89890003 -17.49370003 11.42380047 0.169809 0.217784 0.501118
-5.48169994 -15.72840023 9.70510006 0.105802 0.106370 0.424043
-5.18370008 -15.97080040 9.48610020 0.193121 0.145475 0.264726
-5.14620018 -15.51749992 9.06389999 0.252757 0.183629 0.990438
-10.24960041 -17.23139954 12.30360031 0.189870 0.239858 0.759317
-10.08390045 -17.14360046 12.29520035 0.332726 0.220228 0.993630
-8.20709991 -16.95719910 9.73419952 0.454423 0.149020 0.634941
-7.20550013 -16.63159943 10.33720016 0.408198 0.067711 0.930981
-7.04239988 -16.60129929 10.28199959 0.545505 0.094543 0.829006
-7.03719997 -16.61310005 9.44169998 0.414791 0.062768 0.952111
-7.58669996 -15.96269989 5.26210022 0.317420 0.039815 0.161602
-7.21920013 -16.58819962 5.39680004 0.767945 0.057597 0.984854
-5.27659988 -16.04380035 9.91289997 0.425346 0.121241 0.575464
-7.22720003 -16.54680061 4.24139977 0.576100 0.053247 0.972233
-7.01160002 -16.56959915 1.93750000 0.676152 0.051877 0.974157
-9.54419994 -17.24570084 12.82979965 0.070700 0.226252 0.156188
-9.25769997 -17.08909988 12.64340019 0.166665 0.265153 0.202192
-8.62779999 -15.66829967 13.33889961 0.327581 0.209322 0.740209
-7.14989996 -16.64459991 10.62479973 0.463137 0.197497 0.497759
-7.10720015 -16.62929916 10.59160042 0.299810 0.145187 0.452310
-7.26429987 -16.61779976 9.72869968 0.263973 0.138645 0.986725
-7.16510010 -16.64859962 8.62500000 0.670105 0.063353 0.963114
-5.93820000 -17.27309990 8.63199997 0.055789 0.046332 0.413869
-7.03410006 -16.59670067 6.78469992 0.497908 0.084024 0.946723
-7.16389990 -16.61630058 6.09749985 0.630043 0.055138 0.943840
-7.56409979 -15.99330044 5.30319977 0.262039 0.033348 0.155473
-7.20800018 -16.58970070 5.39080000 0.769548 0.058478 0.951830
-7.06269979 -16.60829926 5.24049997 0.802815 0.053535 0.952796
-7.11250019 -16.61590004 4.55130005 0.753677 0.048972 0.960237
-6.99819994 -16.55520058 4.47399998 0.618399 0.086695 0.994843
-7.28160000 -16.50209999 3.36380005 0.533126 0.034329 0.944712
-7.16179991 -16.58340073 1.88230002 0.664083 0.064242 0.919004
-5.37139988 -15.37779999 -0.27419999 0.096327 0.271982 0.201114
-5.63549995 -15.90320015 -0.86369997 0.217798 0.172839 0.069141
-6.05670023 -16.50020027 -1.23619998 0.136270 0.054392 0.116821
-4.82550001 -18.08399963 -1.00100005 0.232617 0.179750 0.722510
-9.75059986 -17.11770058 18.87630081 0.207874 0.118013 0.260897
-9.68299961 -16.22629929 19.87249947 nan nan nan
-9.49489975 -17.06360054 18.21369934 nan nan nan
-9.35999966 -16.44560051 18.65469933 0.110963 0.032525 0.670809
-9.61209965 -16.97870064 16.24699974 0.327923 0.111155 0.996883
-10.29160023 -17.07769966 13.88840008 0.190681 0.167929 0.809421
-10.16569996 -17.13979912 13.55720043 0.386060 0.202287 0.405823
-8.35589981 -17.83340073 13.97929955 0.280358 0.181142 0.838867
-9.39490032 -17.10969925 13.58250046 0.226186 0.179951 0.870674
-9.20289993 -17.46769905 12.76830006 0.513910 0.126094 0.020339
-8.90569973 -17.27750015 12.26959991 0.530152 0.128909 0.931663
-8.04839993 -17.61179924 11.55679989 0.206836 0.222100 0.211029
-7.80950022 -15.76529980 13.11670017 0.161231 0.000023 0.063409
-8.48340034 -16.79999924 10.21070004 0.521641 0.086420 0.129342
-6.73829985 -16.47170067 11.47970009 0.080741 0.067588 0.084002
-7.13110018 -16.64979935 8.86629963 0.538738 0.054195 0.940322
-5.93559980 -16.24580002 9.75209999 0.061870 0.235752 0.555487
-5.73909998 -15.93669987 9.67059994 0.396039 0.077988 0.493535
-5.04390001 -15.27050018 8.85369968 0.531154 0.120433 0.628693
-7.04230022 -16.60890007 6.05530024 0.638004 0.087248 0.946310
-7.29209995 -16.50200081 4.32889986 0.699470 0.075013 0.929438
-7.16459990 -16.60619926 4.02360010 0.602198 0.055534 0.987629
-7.26000023 -16.55220032 3.17799997 0.765676 0.043144 0.976860
-7.06500006 -16.59530067 2.78570008 0.758177 0.053552 0.939675
-7.24139977 -16.55719948 2.11420012 0.605083 0.042910 0.973552
-7.22119999 -16.57099915 2.06990004 0.510996 0.044197 0.973230
-7.09369993 -16.60029984 1.81449997 0.475580 0.070875 0.961905
-5.56820011 -14.05360031 -0.06930000 0.159116 0.195649 0.137475
-6.00820017 -13.85970020 -0.36559999 0.519571 0.039229 0.026145
-5.14559984 -15.30729961 -0.30880001 0.201150 0.185061 0.441842
-4.16149998 -15.72679996 -0.17580000 0.057192 0.245626 0.466412
-5.16849995 -14.23600006 -0.96010000 0.205910 0.027422 0.488783
-5.45489979 -17.73909950 -0.96840000 0.416324 0.136889 0.209641
-4.79260015 -18.26149940 -0.66119999 0.571701 0.136569 0.007140
-5.47219992 -18.00440025 -1.07309997 0.272258 0.185337 0.049972
-4.67819977 -18.31579971 -0.92119998 0.347361 0.168601 0.532792
-4.92570019 -18.17309952 -1.29900002 0.453616 0.053650 0.068298
-8.12180042 -18.17460060 19.47069931 0.125982 0.157072 0.418213
-8.94239998 -14.39890003 25.47680092 0.359572 0.147371 0.724737
-9.45899963 -17.14209938 18.83410072 0.477530 0.169401 0.027535
-8.63280010 -16.43070030 20.02249908 nan nan nan
-8.57349968 -16.94860077 18.77470016 0.161570 0.211661 0.289190
-8.46669960 -16.52560043 18.71759987 0.223359 0.130846 0.765190
-7.63149977 -16.70030022 18.39220047 0.386948 0.120852 0.090518
-9.83380032 -16.98780060 16.73550034 0.358154 0.182473 0.132343
-9.71249962 -16.95420074 16.17690086 0.177528 0.102571 0.527142
-8.20810032 -16.27599907 17.35149956 0.304853 0.087843 0.152902
-9.71450043 -15.64529991 17.42060089 0.267053 0.066981 0.920495
-7.48309994 -17.04350090 16.37739944 0.352951 0.066434 0.523077
-6.79040003 -17.72310066 15.08189964 0.381690 0.203275 0.822237
-8.12609959 -17.89769936 14.19719982 0.500482 0.135576 0.702057
-8.10039997 -18.23620033 13.48410034 0.280260 0.210531 0.964866
-9.35719967 -16.87479973 14.52919960 0.000355 0.227394 0.128055
-7.91239977 -16.54800034 14.94169998 0.087665 0.118419 0.557154
-9.15030003 -16.90859985 13.49880028 0.489534 0.161895 0.961707
-7.12790012 -16.60050011 14.44060040 0.429022 0.159138 0.675730
-9.67070007 -17.18950081 12.58689976 0.222575 0.273430 0.456429
-6.53399992 -17.76219940 12.34939957 0.076403 0.118587 0.353225
-6.93849993 -16.29520035 13.61149979 0.105477 0.067331 0.608672
-6.35220003 -17.07939911 12.57100010 0.280565 0.172177 0.200398
-6.38859987 -17.32220078 12.22420025 0.261273 0.142545 0.600676
-6.29160023 -17.00569916 12.21549988 0.578965 0.106145 0.299435
-7.30289984 -14.73139954 13.90750027 0.168187 0.209817 0.748284
-8.48680019 -15.78590012 11.38309956 0.087539 0.000001 0.012526
-8.45660019 -16.87179947 10.21339989 0.457630 0.076668 0.188625
-7.24370003 -16.57719994 10.65330029 0.714424 0.070591 0.807299
-6.51870012 -16.45459938 10.22560024 0.187903 0.057775 0.440860
-7.24340010 -16.57649994 7.39080000 0.612286 0.075483 0.964773
-7.19899988 -16.60479927 7.13159990 0.614569 0.082326 0.996575
-7.16599989 -16.62159920 6.94439983 0.486384 0.097872 0.947340
-7.12200022 -16.62859917 6.71409988 0.760415 0.078419 0.959929
-7.07359982 -16.61009979 6.49289989 0.687399 0.061219 0.987069
-7.03529978 -16.57169914 6.34600019 0.645239 0.074409 0.918818
-7.17309999 -16.59880066 4.48769999 0.529051 0.044992 0.978139
-7.07789993 -16.62019920 4.03410006 0.606093 0.048783 0.924489
-7.00950003 -16.58860016 3.75300002 0.455106 0.065477 0.988329
-7.15010023 -16.58919907 2.20779991 0.435182 0.061644 0.997617
-7.06640005 -16.59129906 1.84319997 0.397632 0.073100 0.993236
-7.21740007 -16.56040001 0.46919999 0.570520 0.069497 0.953883
-7.11969995 -16.60939980 0.02010000 0.662929 0.048424 0.965712
-7.06459999 -16.57550049 -0.19900000 0.703236 0.046972 0.977185
-5.58120012 -13.88949966 -0.11250000 0.328927 0.109884 0.253587
-4.76119995 -15.15229988 -0.09470000 0.118388 0.089293 0.429744
-5.52269983 -14.03310013 -0.49259999 0.317518 0.210030 0.364930
-4.34889984 -15.67310047 -0.18560000 0.161052 0.276185 0.229102
-5.29549980 -15.46910000 -0.47940001 0.142819 0.255734 0.994655
-4.86339998 -15.81550026 -0.45490000 0.082333 0.118347 0.914523
-4.41109991 -16.04910088 -0.43110001 0.056704 0.193340 0.803277
-5.72730017 -15.68640041 -1.07749999 0.151026 0.245099 0.897644
-6.32620001 -16.49360085 -1.29240000 0.382777 0.054675 0.043265
-4.94379997 -18.02919960 -0.85689998 0.349550 0.192196 0.718687
-5.33169985 -17.93880081 -1.00070000 0.420450 0.127135 0.158014
-4.50059986 -16.77479935 -1.02069998 0.054385 0.099120 0.191212
-4.88350010 -18.14979935 -1.25500000 0.254807 0.015147 0.436896
-7.22130013 -18.64780045 18.85980034 0.368174 0.103362 0.208777
-6.19540024 -17.09309959 20.86709976 0.491102 0.055035 0.649148
-7.92140007 -16.88419914 21.19050026 nan nan nan
-4.66260004 -17.48839951 19.57279968 0.312234 0.198786 0.120722
-5.51749992 -17.51099968 19.44090080 0.237485 0.146557 0.363926
-6.38520002 -17.10650063 18.78759956 nan nan nan
-7.16629982 -16.60460091 19.02099991 0.109932 0.108378 0.045349
-8.80630016 -16.52470016 19.10029984 0.190952 0.214714 0.636081
-7.21869993 -16.55590057 18.10149956 0.288856 0.106699 0.893055
-5.37360001 -18.28079987 15.23050022 nan nan nan
-8.80039978 -17.04109955 16.96240044 0.618207 0.028989 0.368107
-8.83399963 -14.37230015 20.27379990 0.373486 0.109694 0.171831
-6.74989986 -17.96209908 15.06040001 0.074508 0.254132 0.206205
-8.05370045 -16.69510078 16.74550056 0.054870 0.182746 0.858498
-9.53619957 -16.97610092 16.32810020 0.074565 0.141706 0.843759
-5.45720005 -18.11860085 14.54590034 0.127652 0.189448 0.447499
-8.81050014 -16.29299927 16.95949936 0.304345 0.108331 0.931486
-6.70730019 -17.11599922 15.06320000 0.304976 0.153621 0.360546
-8.15559959 -18.24939919 13.58740044 0.299206 0.162268 0.616915
-10.19250011 -16.92919922 14.80329990 0.153334 0.202454 0.760019
-8.80599976 -16.78199959 14.59350014 0.259533 0.176740 0.758932
-9.48869991 -16.87540054 14.40380001 0.496652 0.113921 0.794974
-8.80599976 -16.81100082 14.24129963 0.514047 0.152489 0.567550
-9.46689987 -17.08580017 13.85389996 0.545281 0.085486 0.035535
-8.08500004 -15.57610035 15.31989956 0.149692 0.105641 0.589487
-9.46280003 -17.03170013 13.60879993 0.190845 0.192028 0.689563
-10.11660004 -17.06349945 13.50389957 0.143980 0.192666 0.828586
-9.46479988 -16.85160065 13.41440010 0.451406 0.167511 0.628822
-6.67049980 -15.63319969 14.53559971 0.231545 0.247709 0.910476
-7.37729979 -15.44659996 14.66590023 0.669441 0.081437 0.713145
-6.78900003 -16.24290085 13.47000027 0.412734 0.106572 0.850396
-10.03849983 -17.32539940 12.26990032 0.100227 0.263531 0.090814
-9.41969967 -17.23830032 12.15670013 0.179668 0.254047 0.160661
-6.46460009 -17.77829933 11.22379971 0.196595 0.168228 0.653310
-7.41599989 -15.21520042 13.77910042 0.265483 0.192807 0.879728
-6.89559984 -16.39679909 12.20189953 0.489928 0.127554 0.772149
-6.55760002 -17.89889908 10.39980030 0.340146 0.173896 0.443762
-6.66709995 -14.41149998 13.64840031 0.271444 0.193580 0.866143
-7.00530005 -16.56999969 10.86400032 0.565524 0.102861 0.847308
-8.23869991 -16.76350021 9.96529961 0.420421 0.099170 0.759550
-7.09320021 -16.66970062 9.71199989 0.634193 0.098587 0.971654
-7.09770012 -16.66449928 9.64220047 0.479204 0.110705 0.883156
-7.13579988 -16.66679955 9.07229996 0.801116 0.075217 0.961771
-7.16550016 -16.65970039 8.60410023 0.538878 0.045987 0.976179
-6.94910002 -16.52179909 3.27559996 0.769009 0.051347 0.966656
-7.04729986 -16.57559967 0.26730001 0.647344 0.053607 0.907256
-7.04979992 -16.57220078 0.04320000 0.511659 0.060319 0.991689
-6.60659981 -16.64949989 -1.22880006 nan nan nan
-7.27470016 -17.21899986 24.51580048 0.284009 0.005559 0.140513
-6.50810003 -16.91139984 23.35890007 0.637726 0.046196 0.848747
-5.63579988 -16.38470078 23.19739914 0.247935 0.127018 0.481453
-7.71369982 -18.47970009 19.58499908 nan nan nan
-6.96280003 -18.15259933 19.44949913 0.251281 0.189042 0.090794
-5.94350004 -16.48880005 21.54269981 nan nan nan
-7.06449986 -17.38240051 19.51390076 0.291477 0.165885 0.178261
-5.55219984 -16.52330017 19.15029907 0.195595 0.069613 0.222728
-5.40399981 -18.07480049 15.82530022 0.524756 0.000001 0.442361
-6.25299978 -18.82299995 14.91959953 0.147324 0.168476 0.517959
-6.46969986 -15.80189991 19.29100037 0.329520 0.132787 0.777164
-8.19760036 -18.38269997 16.05839920 0.270987 0.032763 0.923815
-8.23900032 -18.12470055 16.07439995 nan nan nan
-5.05660009 -18.20450020 14.43809986 nan nan nan
-5.68730021 -18.03940010 14.72710037 0.258123 0.148923 0.584937
-7.58580017 -17.37389946 16.35070038 0.337296 0.134954 0.614696
-6.09700012 -16.21269989 16.87980080 0.372032 0.157328 0.788454
-6.38609982 -17.61170006 14.91520023 0.229176 0.117498 0.816707
-9.11340046 -16.96529961 16.69759941 0.319638 0.181991 0.183235
-7.06199980 -17.16119957 15.35410023 0.519066 0.071557 0.455748
-9.15260029 -16.98679924 16.30139923 0.107647 0.215084 0.812929
-7.31430006 -18.54059982 13.14760017 0.382554 0.104151 0.797782
-7.90250015 -18.40519905 13.51309967 0.200230 0.212140 0.598120
-7.38259983 -18.51119995 12.81700039 0.240136 0.201757 0.516307
-8.63290024 -16.74220085 14.95380020 0.398591 0.072699 0.576406
-10.07009983 -16.89780045 14.58020020 0.279834 0.168353 0.370433
-6.91489983 -17.40889931 12.65939999 0.565533 0.097198 0.926130
-6.39890003 -17.44059944 12.12199974 0.259606 0.183111 0.668343
-7.42080021 -15.46650028 14.66580009 0.618000 0.084668 0.765377
-10.07229996 -17.32480049 13.47399998 0.681567 0.083817 0.039120
-6.89069986 -16.29050064 13.31019974 0.171143 0.096921 0.905715
-5.61420012 -15.95320034 12.96640015 0.216619 0.120068 0.992793
-5.81949997 -16.32299995 12.14850044 0.644427 0.084093 0.229337
-7.08549976 -16.53179932 12.32649994 0.427051 0.165767 0.909995
-4.68370008 -16.26810074 11.47770023 0.418162 0.179178 0.687651
-10.17879963 -17.29840088 12.39640045 0.379446 0.227386 0.329131
-7.17159986 -16.61170006 11.90390015 0.759616 0.090963 0.962985
-7.24490023 -16.58900070 11.58800030 0.419007 0.081237 0.943338
-10.25049973 -17.20170021 11.89270020 0.138133 0.206650 0.062368
-7.11250019 -17.84919930 9.13140011 0.409371 0.091149 0.896168
-8.10999966 -17.01799965 10.15460014 0.178385 0.227211 0.866068
-8.15970039 -17.20210075 9.78160000 0.341769 0.189886 0.120401
-8.71520042 -16.48209953 10.55690002 0.463481 0.114174 0.235736
-7.11740017 -16.62599945 9.51109982 0.698069 0.076346 0.974777
-7.14099979 -16.63319969 7.19890022 0.699902 0.073967 0.998041
-7.27670002 -16.59230042 6.68809986 0.460494 0.055402 0.989175
-7.14489985 -16.60840034 5.21950006 0.705572 0.055244 0.925667
-7.18750000 -16.61870003 5.06160021 0.721030 0.056093 0.944719
-7.26359987 -16.56019974 2.94020009 0.827779 0.048443 0.959987
-7.27510023 -16.55120087 2.89630008 0.693043 0.044659 0.972610
-7.22240019 -16.58519936 1.28250003 0.550755 0.046390 0.987613
-7.03420019 -16.43790054 0.09550000 0.511630 0.072121 0.867055
-5.20629978 -16.86829948 22.22859955 nan nan nan
-5.42150021 -16.57329941 21.71949959 0.274606 0.100320 0.310280
-7.32779980 -18.85729980 18.77820015 0.332740 0.145137 0.961884
-5.57399988 -16.61569977 21.14329910 0.506505 0.114091 0.715499
-6.44299984 -16.95359993 21.07769966 nan nan nan
-7.58120012 -17.51239967 19.40049934 0.078198 0.089968 0.423795
-5.13390017 -18.02910042 16.07810020 0.163808 0.133514 0.458325
-6.17180014 -16.60840034 19.06649971 0.085668 0.130797 0.046866
-6.79449987 -15.52719975 21.24580002 0.560145 0.129962 0.153727
-6.42519999 -17.13470078 17.72240067 0.152802 0.017854 0.704604
-7.80660009 -16.48769951 19.77230072 0.101040 0.239790 0.344232
-8.60079956 -17.61120033 18.45649910 0.176090 0.098101 0.803086
-6.02120018 -17.74449921 15.93799973 0.437174 0.051501 0.304797
-8.01770020 -18.31599998 16.41200066 0.447638 0.057525 0.684426
-8.71109962 -17.07749939 18.78470039 0.131888 0.125963 0.241804
-6.14080000 -17.43959999 15.80710030 0.369920 0.165337 0.326106
-6.89680004 -18.14699936 15.20160007 0.365769 0.115914 0.077770
-8.93669987 -16.60429955 18.46310043 0.118771 0.085123 0.981798
-7.16060019 -17.51869965 14.91069984 0.251725 0.205979 0.370416
-7.38500023 -18.48310089 13.28090000 0.196983 0.090017 0.799497
-8.55340004 -17.74410057 14.95300007 0.320745 0.078369 0.256832
-9.24930000 -16.94840050 16.43359947 0.329697 0.195318 0.749688
-9.35149956 -16.84460068 16.14069939 0.391543 0.080684 0.628957
-8.78240013 -14.29319954 18.68709946 0.308890 0.196245 0.765796
-6.92010021 -15.89080048 14.71850014 0.402977 0.142583 0.782753
-6.59719992 -17.03610039 12.73089981 0.436482 0.087183 0.147226
-9.67759991 -16.81649971 14.75909996 0.136107 0.180539 0.057974
-7.86800003 -16.66699982 13.46220016 0.219986 0.102166 0.586625
-9.08180046 -17.05500031 13.82359982 0.474636 0.153254 0.601123
-5.67369986 -16.57690048 11.82079983 0.277911 0.157649 0.458436
-6.53539991 -17.72459984 10.77690029 0.040402 0.231098 0.789544
-7.09630013 -16.59530067 11.72379971 0.686395 0.063336 0.977586
-7.19320011 -16.62890053 11.45330048 0.737650 0.061212 0.976481
-10.03829956 -17.22279930 12.63500023 0.136831 0.246023 0.340101
-10.08119965 -17.36389923 12.24629974 0.441013 0.138047 0.691933
-10.14929962 -17.29479980 12.09259987 0.110114 0.153019 0.800343
-10.24450016 -17.19389915 11.89070034 0.228671 0.149557 0.113345
-7.05649996 -16.57920074 10.18889999 0.505001 0.090292 0.884746
-8.22700024 -17.02519989 10.17990017 0.331906 0.167072 0.751558
-5.11140013 -15.52950001 9.08479977 0.175498 0.204597 0.919146
-7.02740002 -16.52849960 8.83950043 0.508744 0.141789 0.955065
-7.23050022 -16.62369919 7.10500002 0.536843 0.053867 0.957905
-7.03090000 -16.58519936 6.35900021 0.725076 0.060989 0.930139
-7.46910000 -15.96630001 6.89370012 0.122014 0.074838 0.797404
-7.21670008 -16.60169983 6.00010014 0.669097 0.059075 0.931837
-7.16450024 -16.62089920 5.03509998 0.625878 0.050409 0.953498
-7.23500013 -16.55279922 3.93199992 0.685069 0.031848 0.988207
-7.11479998 -16.62089920 2.27589989 0.823618 0.056468 0.975220
-7.16139984 -16.60479927 2.19860005 0.449863 0.048610 0.965270
-7.05620003 -16.57369995 1.48590004 0.525571 0.107909 0.976753
-7.12960005 -16.59300041 1.36479998 0.724195 0.083046 0.967297
-7.17670012 -16.59040070 1.28680003 0.544145 0.070054 0.971089
-4.99350023 -16.31699944 11.37250042 0.100172 0.222470 0.910391
-5.95970011 -17.50460052 11.49400043 0.382693 0.160959 0.565428
-6.14639997 -17.66629982 11.16609955 0.141016 0.205193 0.137091
-6.45289993 -15.97109985 13.31659985 0.678961 0.098195 0.233594
-8.08650017 -17.60129929 11.11719990 0.292365 0.182705 0.927800
-7.86180019 -16.55660057 10.29829979 0.255877 0.242317 0.887206
-8.40820026 -16.55830002 9.76640034 0.328734 0.188825 0.375342
-7.05299997 -16.61529922 6.88469982 0.668306 0.082479 0.940081
-7.00699997 -16.58740044 6.23479986 0.661908 0.069399 0.966591
-7.19850016 -16.57159996 5.42659998 0.691877 0.076472 0.943900
-7.21990013 -16.55260086 4.77750015 0.677289 0.073624 0.924845
-7.25670004 -16.50729942 4.76620007 0.650727 0.060455 0.984932
-6.97109985 -16.57909966 3.14289999 0.727495 0.057376 0.955600
-7.05469990 -16.62520027 3.07509995 0.614619 0.065527 0.933181
-6.98869991 -16.56340027 2.56110001 0.697548 0.051545 0.974340
-5.79239988 -16.12709999 12.72949982 0.497054 0.100147 0.285275
-6.46869993 -17.06789970 12.44639969 0.204757 0.259511 0.701002
-6.61719990 -17.80340004 10.80000019 0.329259 0.161614 0.707337
-6.68720007 -17.06990051 9.81599998 0.086366 0.069619 0.166525
-6.66419983 -16.50160027 10.27369976 0.062735 0.078780 0.461379
-7.13430023 -16.60429955 11.65349960 0.427652 0.095451 0.660023
-7.26450014 -16.58650017 10.75580025 0.301300 0.072407 0.681065
-8.06709957 -17.60549927 11.14649963 0.283517 0.107181 0.941574
-7.01020002 -16.54980087 7.27500010 0.763267 0.075236 0.965459
-6.99399996 -16.56310081 6.05299997 0.807061 0.082212 0.924055
-7.04769993 -16.60890007 6.01300001 0.489669 0.083668 0.976539
-7.26039982 -16.54929924 6.56699991 0.659464 0.090913 0.989508
-7.03109980 -16.57299995 4.36600018 0.613573 0.100813 0.964220
-7.07880020 -16.58830070 4.34600019 0.645152 0.075638 0.922474
-7.12570000 -16.59810066 4.32819986 0.669442 0.061968 0.963923
-7.23610020 -16.54319954 3.78979993 0.765363 0.039850 0.974382
-5.25099993 -15.99079990 9.55319977 0.037743 0.124875 0.533868
-5.15199995 -15.90540028 12.07100010 0.496742 0.166411 0.347729
-5.49130011 -16.59449959 11.40950012 0.190965 0.255757 0.965865
-6.02390003 -16.31599998 10.01920033 0.065582 0.027092 0.147149
-6.24609995 -17.73019981 11.10149956 0.260994 0.197345 0.628429
-6.42360020 -16.97509956 12.74580002 0.447586 0.118316 0.506953
-6.61149979 -16.47820091 11.45619965 0.048469 0.058984 0.907900
-6.87879992 -17.90859985 10.88980007 0.598605 0.119998 0.304624
-7.04829979 -16.59810066 4.30389977 0.682598 0.084748 0.969043
-7.05719995 -16.60779953 5.35529995 0.744373 0.045287 0.970867
-6.68050003 -14.37430000 13.41289997 0.367199 0.166935 0.887648
-7.17889977 -16.58079910 3.31010008 0.679444 0.045566 0.992459
-7.18930006 -16.59059906 4.30779982 0.779891 0.046711 0.999142
-7.11549997 -17.07159996 10.10579967 0.155471 0.112925 0.633159
-7.19960022 -16.61240005 7.07280016 0.510399 0.060525 0.950025
-7.19390011 -16.62019920 8.33699989 0.664314 0.063743 0.973029
-7.22240019 -16.56069946 9.06250000 0.370933 0.108698 0.973654
-7.23939991 -16.56419945 10.54349995 0.529993 0.109757 0.920392
-7.26580000 -16.43829918 11.47099972 0.428400 0.190752 0.731068
-7.17659998 -14.76930046 14.01609993 0.167423 0.222861 0.510231
-8.34759998 -15.93200016 13.80620003 0.132984 0.129465 0.952899
-8.93560028 -17.16290092 12.48929977 0.298868 0.180298 0.914255
-10.09010029 -17.34000015 12.33979988 0.034179 0.192234 0.570710
-7.19329977 -16.55870056 4.03340006 0.696837 0.058958 0.963499
-7.06309986 -16.60149956 4.51499987 0.693878 0.080155 0.949781
-7.06129980 -16.61919975 5.07089996 0.532398 0.075661 0.959738
-4.89279985 -16.38669968 11.62720013 0.221541 0.179084 0.840864
-7.10599995 -16.62150002 5.67019987 0.644633 0.058351 0.951614
-5.12690020 -16.41930008 11.69379997 0.399374 0.103114 0.622255
-5.38789988 -16.60110092 11.61579990 0.367954 0.147470 0.535935
-7.43470001 -15.91030025 6.81379986 0.476158 0.100908 0.610597
-5.77969980 -17.66130066 11.57380009 0.093009 0.193502 0.897340
-7.20020008 -16.57159996 7.63500023 0.599453 0.093959 0.978308
-7.05870008 -16.62430000 8.23219967 0.533149 0.054177 0.995890
-6.32159996 -17.88139915 10.67910004 0.235630 0.164677 0.544360
-6.93349981 -16.63459969 9.66629982 0.020865 0.177103 0.556113
-6.26770020 -17.44389915 12.05249977 0.391824 0.176261 0.437343
-6.66750002 -14.28689957 13.55480003 0.186468 0.226115 0.710678
-6.51989985 -16.96809959 12.71980000 0.635102 0.112521 0.339759
-7.18249989 -16.59810066 12.45400047 0.544587 0.125850 0.957056
-6.73979998 -16.97170067 15.06309986 0.200950 0.150306 0.277099
-8.19890022 -17.24970055 11.35140038 0.152129 0.042221 0.663037
-7.43690014 -17.39299965 14.89669991 0.093793 0.102482 0.883900
-7.93849993 -15.89879990 15.87660027 0.349267 0.194673 0.091033
-7.90450001 -14.02919960 19.67340088 0.412566 0.140773 0.951943
-8.78299999 -16.02260017 13.88490009 0.480141 0.096148 0.004514
-8.96020031 -17.20260048 12.72130013 0.222572 0.196355 0.478931
-8.86750031 -16.40760040 14.60359955 0.470427 0.183083 0.035752
-8.53950024 -16.83600044 16.30800056 0.751101 0.081282 0.931059
-9.51519966 -15.66329956 13.58810043 0.116542 0.198123 0.832766
-9.40769958 -16.84239960 13.34720039 0.166086 0.162443 0.323518
-9.27420044 -16.91900063 14.24759960 0.261914 0.057902 0.882773
-8.92819977 -16.85589981 16.52709961 0.537517 0.105847 0.675133
-9.71179962 -17.19709969 12.17380047 0.294651 0.156918 0.300860
-9.65419960 -16.78059959 13.54860020 0.323300 0.171332 0.141044
-9.88469982 -17.21509933 12.24709988 0.061107 0.232136 0.336259
-9.66959953 -16.72089958 14.70440006 0.104948 0.250446 0.521949
-10.05099964 -17.28400040 12.26739979 0.026541 0.279393 0.088934
-9.83469963 -16.94219971 14.54769993 0.410291 0.157138 0.561712
-9.89449978 -16.95560074 14.56779957 0.277223 0.223332 0.465821
-7.10279989 -16.59930038 4.59369993 0.614448 0.081923 0.933589
-7.16440010 -16.60250092 5.32280016 0.603562 0.062263 0.917887
-5.08349991 -15.54689980 9.16499996 0.021918 0.266379 0.642447
-7.07620001 -16.59210014 5.96029997 0.597151 0.101110 0.987517
-5.21180010 -16.01679993 9.84560013 0.323250 0.197456 0.517909
-7.18699980 -16.60600090 6.78550005 0.672681 0.070099 0.919542
-7.28509998 -16.25480080 7.09770012 0.146810 0.035146 0.960557
-7.22900009 -16.60639954 7.59980011 0.649466 0.073041 0.994574
-5.15660000 -16.43300056 11.53209972 0.355453 0.103987 0.742066
-7.26340008 -16.54339981 9.38819981 0.202302 0.216057 0.809601
-7.07079983 -16.61289978 10.08469963 0.357053 0.182916 0.934615
-7.11840010 -16.64150047 10.10470009 0.433549 0.108359 0.951977
-6.51870012 -14.11950016 13.05010033 0.247973 0.168690 0.606119
-6.24139977 -17.72290039 11.15999985 0.374539 0.202052 0.781415
-6.29850006 -17.78230095 11.15130043 0.328332 0.186856 0.996079
-8.08119965 -17.09950066 9.68900013 0.309961 0.174489 0.712171
-7.04500008 -16.58989906 12.19719982 0.303995 0.148972 0.554350
-8.55010033 -16.47380066 9.73369980 0.197800 0.058598 0.674076
-7.55079985 -16.09180069 12.11299992 0.027526 0.098042 0.871491
-6.78620005 -16.23570061 13.54380035 0.334688 0.134867 0.423242
-8.39780045 -16.85199928 10.19999981 0.273764 0.105948 0.117045
-5.38780022 -18.11359978 14.89179993 0.359937 0.192674 0.242726
-5.95330000 -17.84469986 14.52089977 0.169651 0.248878 0.637683
-7.22340012 -16.58889961 13.61320019 0.514119 0.050336 0.800202
-6.11800003 -17.70579910 14.95769978 0.293797 0.174623 0.741158
-8.16429996 -17.61639977 11.20919991 0.210589 0.124094 0.961713
-6.69129992 -17.08709908 15.10060024 0.346298 0.117086 0.113232
-5.42189980 -15.46710014 19.52330017 nan nan nan
-7.38579988 -18.47150040 12.69849968 0.299566 0.157760 0.826165
-6.48610020 -17.24909973 16.17379951 0.120844 0.215127 0.821407
-6.30749989 -18.84720039 14.92580032 0.358477 0.155026 0.991650
-7.69029999 -18.19669914 13.43080044 0.172147 0.153260 0.326877
-7.22109985 -16.61709976 16.45809937 0.307522 0.124461 0.090577
-8.89750004 -17.20689964 12.39089966 0.223945 0.136860 0.672299
-8.21850014 -16.46269989 14.91110039 0.226227 0.125037 0.116817
-9.20269966 -15.89029980 14.04139996 0.270699 0.108654 0.937451
-8.91040039 -15.02519989 15.95699978 0.222908 0.239639 0.253770
-8.96920013 -16.96769905 13.88619995 0.417157 0.068833 0.988780
